1068.453 -89.654 80.903 0.989 -0.120 0.088
1044.615 -97.086 74.656 -0.191 0.814 0.549
1029.622 -89.180 54.921 -0.701 -0.313 0.641
1018.309 -99.171 74.562 0.655 0.704 -0.274
1045.384 -88.632 87.423 -0.539 0.577 0.614
1003.434 -97.114 74.596 -0.186 0.811 0.555
10137.060 72.885 -74.042 -0.017 0.423 0.906
10151.330 66.019 -105.490 -0.684 -0.181 -0.707
10134.455 67.663 -100.024 0.989 0.096 -0.113
10110.615 76.376 -95.739 -0.189 -0.922 -0.337
10095.620 73.427 -74.684 -0.701 0.151 -0.697
10084.310 78.421 -96.148 0.656 -0.618 0.434
10111.385 65.108 -106.110 -0.538 -0.707 -0.458
10069.435 76.417 -95.689 -0.188 -0.920 -0.344
10146.060 30.132 -99.431 -0.016 0.795 0.606
10160.330 9.438 -124.088 -0.684 -0.488 -0.542
10143.455 13.434 -120.011 0.989 0.032 -0.145
10119.615 23.140 -120.266 -0.189 -0.973 0.130
10104.620 30.313 -100.252 -0.701 -0.190 -0.687
10093.310 24.761 -121.578 0.656 -0.345 0.671
10120.385 8.345 -124.213 -0.538 -0.839 -0.077
10078.435 23.200 -120.240 -0.188 -0.974 0.124
10155.060 -19.524 -102.046 -0.016 0.986 0.167
10169.330 -49.305 -114.262 -0.684 -0.684 -0.253
10152.455 -43.871 -112.510 0.989 -0.039 -0.143
10128.615 -35.396 -117.245 -0.189 -0.801 0.568
10113.620 -19.744 -102.857 -0.702 -0.487 -0.520
10102.310 -34.570 -119.160 0.656 0.006 0.755
10129.385 -50.331 -113.865 -0.538 -0.779 0.322
10087.435 -35.331 -117.250 -0.188 -0.805 0.562
10164.060 -64.707 -81.286 -0.016 0.951 -0.310
10178.330 -96.755 -78.265 -0.684 -0.723 0.095
10161.455 -91.129 -79.237 0.989 -0.101 -0.109
10137.615 -85.825 -87.370 -0.189 -0.446 0.875
10122.620 -65.279 -81.903 -0.701 -0.673 -0.234
10111.310 -85.983 -89.450 0.656 0.356 0.665
10138.385 -97.479 -77.436 -0.538 -0.540 0.647
10096.435 -85.769 -87.404 -0.188 -0.452 0.872
10173.060 -95.070 -41.908 -0.016 0.698 -0.716
10187.330 -122.042 -24.341 -0.684 -0.597 0.420
10170.455 -117.513 -27.816 0.989 -0.140 -0.049
10146.615 -116.594 -37.482 -0.190 0.012 0.982
10131.620 -95.862 -42.188 -0.701 -0.705 0.106
10120.310 -117.703 -39.250 0.656 0.625 0.423
10147.385 -122.298 -23.270 -0.538 -0.178 0.824
10105.435 -116.562 -37.538 -0.188 0.005 0.982
10182.060 -103.656 7.069 -0.016 0.285 -0.958
10196.330 -119.376 35.159 -0.684 -0.333 0.649
10179.455 -116.981 29.976 0.989 -0.147 0.022
10155.615 -120.660 20.991 -0.190 0.467 0.864
10140.620 -104.487 7.189 -0.701 -0.575 0.421
10129.310 -122.462 19.940 0.656 0.750 0.085
10156.385 -119.106 36.225 -0.538 0.225 0.812
10114.435 -120.656 20.925 -0.188 0.461 0.867
10191.060 -88.500 54.427 -0.017 -0.193 -0.981
10205.330 -89.367 86.605 -0.684 0.006 0.729
10188.455 -89.654 80.903 0.989 -0.120 0.087
10164.615 -97.086 74.656 -0.190 0.814 0.549
10149.620 -89.180 54.921 -0.702 -0.313 0.640
10138.310 -99.171 74.562 0.656 0.704 -0.273
10165.385 -88.632 87.423 -0.538 0.577 0.614
10123.435 -97.114 74.596 -0.188 0.811 0.554
10200.060 -53.073 89.319 -0.016 -0.627 -0.779
10214.330 -38.889 118.214 -0.684 0.345 0.643
10197.455 -41.792 113.298 0.989 -0.066 0.133
10173.615 -51.276 111.221 -0.189 0.976 0.107
10158.620 -53.447 90.072 -0.701 0.020 0.713
10147.310 -53.165 112.107 0.656 0.496 -0.569
10174.385 -37.856 118.597 -0.538 0.797 0.276
10132.435 -51.328 111.181 -0.188 0.976 0.113
10209.060 -5.489 103.751 -0.016 -0.917 -0.398
10223.330 20.498 122.746 -0.684 0.604 0.409
10206.455 15.643 119.743 0.989 0.004 0.149
10182.615 6.280 122.310 -0.189 0.914 -0.359
10167.620 -5.470 104.592 -0.701 0.349 0.622
10156.310 5.019 123.972 0.656 0.174 -0.735
10183.385 21.590 122.606 -0.538 0.834 -0.125
10141.435 6.215 122.299 -0.188 0.917 -0.353
10218.060 43.351 94.420 -0.016 -0.997 0.073
10232.330 75.189 99.164 -0.684 0.725 0.081
10215.455 69.494 98.761 0.989 0.072 0.130
10191.615 62.397 105.385 -0.190 0.642 -0.743
10176.620 43.758 95.156 -0.701 0.598 0.388
10165.310 62.053 107.442 0.656 -0.187 -0.731
10192.385 76.091 98.532 -0.538 0.680 -0.499
10150.435 62.334 105.405 -0.188 0.648 -0.738
1080.057 -53.073 89.319 -0.016 -0.628 -0.778
1094.331 -38.889 118.214 -0.684 0.345 0.643
1077.453 -41.792 113.298 0.989 -0.066 0.133
1053.615 -51.276 111.221 -0.191 0.976 0.107
1038.622 -53.447 90.072 -0.701 0.021 0.713
1027.309 -53.165 112.107 0.655 0.496 -0.570
1054.384 -37.856 118.597 -0.539 0.796 0.276
1012.434 -51.328 111.181 -0.186 0.976 0.114
10227.060 82.262 63.462 -0.017 -0.849 0.528
10241.330 112.659 52.867 -0.684 0.680 -0.264
10224.455 107.428 55.157 0.989 0.124 0.082
10200.615 104.221 64.321 -0.189 0.224 -0.956
10185.620 82.965 63.924 -0.701 0.710 0.066
10174.310 104.873 66.303 0.656 -0.505 -0.561
10201.385 113.163 51.889 -0.538 0.371 -0.757
10159.435 104.175 64.368 -0.188 0.230 -0.955
10199.060 102.340 17.914 -0.016 -0.506 0.863
10213.330 124.320 -5.603 -0.684 0.479 -0.550
10196.455 120.755 -1.143 0.989 0.148 0.014
10172.615 122.179 8.460 -0.189 -0.247 -0.950
10157.620 103.177 17.996 -0.701 0.659 -0.272
10146.310 123.677 9.912 0.656 -0.708 -0.261
10173.385 124.312 -6.704 -0.538 -0.024 -0.843
10131.435 122.161 8.523 -0.188 -0.240 -0.952
10208.060 98.945 -31.694 -0.016 -0.047 0.999
10222.330 107.479 -62.731 -0.684 0.168 -0.710
10205.455 106.394 -57.127 0.989 0.138 -0.056
10181.615 112.118 -49.284 -0.190 -0.660 -0.727
10166.620 99.724 -32.010 -0.701 0.457 -0.547
10155.310 114.119 -48.695 0.656 -0.749 0.097
10182.385 106.960 -63.702 -0.538 -0.413 -0.735
10140.435 112.130 -49.220 -0.188 -0.655 -0.732
10217.060 72.885 -74.042 -0.017 0.423 0.906
10231.330 66.019 -105.490 -0.684 -0.181 -0.707
10214.455 67.663 -100.024 0.989 0.096 -0.113
10190.615 76.376 -95.739 -0.189 -0.922 -0.337
10175.620 73.427 -74.684 -0.701 0.151 -0.697
10164.310 78.421 -96.148 0.656 -0.618 0.434
10191.385 65.108 -106.110 -0.538 -0.707 -0.458
10149.435 76.417 -95.689 -0.188 -0.920 -0.344
10226.060 30.132 -99.431 -0.016 0.795 0.606
10240.330 9.438 -124.088 -0.684 -0.488 -0.542
10223.455 13.434 -120.011 0.989 0.032 -0.145
10199.615 23.140 -120.266 -0.189 -0.973 0.130
10184.620 30.313 -100.252 -0.701 -0.190 -0.687
10173.310 24.761 -121.578 0.656 -0.345 0.671
10200.385 8.345 -124.213 -0.538 -0.839 -0.077
10158.435 23.200 -120.240 -0.188 -0.974 0.124
10235.060 -19.524 -102.046 -0.016 0.986 0.167
10249.330 -49.305 -114.262 -0.684 -0.684 -0.253
10232.455 -43.871 -112.510 0.989 -0.039 -0.143
10208.615 -35.396 -117.245 -0.189 -0.801 0.568
10193.620 -19.744 -102.857 -0.702 -0.487 -0.520
10182.310 -34.570 -119.160 0.656 0.006 0.755
10209.385 -50.331 -113.865 -0.538 -0.779 0.322
10167.435 -35.331 -117.250 -0.188 -0.805 0.562
10244.060 -64.707 -81.286 -0.016 0.951 -0.310
10258.330 -96.755 -78.265 -0.684 -0.723 0.095
10241.455 -91.129 -79.237 0.989 -0.101 -0.109
10217.615 -85.825 -87.370 -0.189 -0.446 0.875
10202.620 -65.279 -81.903 -0.701 -0.673 -0.234
10191.310 -85.983 -89.450 0.656 0.356 0.665
10218.385 -97.479 -77.436 -0.538 -0.540 0.647
10176.435 -85.769 -87.404 -0.188 -0.452 0.872
10253.060 -95.070 -41.908 -0.016 0.698 -0.716
10267.330 -122.042 -24.341 -0.684 -0.597 0.420
10250.455 -117.513 -27.816 0.989 -0.140 -0.049
10226.615 -116.594 -37.482 -0.190 0.012 0.982
10211.620 -95.862 -42.188 -0.701 -0.705 0.106
10200.310 -117.703 -39.250 0.656 0.625 0.423
10227.385 -122.298 -23.270 -0.538 -0.178 0.824
10185.435 -116.562 -37.538 -0.188 0.005 0.982
10262.060 -103.656 7.069 -0.016 0.285 -0.958
10276.330 -119.376 35.159 -0.684 -0.333 0.649
10259.455 -116.981 29.976 0.989 -0.147 0.022
10235.615 -120.660 20.991 -0.190 0.467 0.864
10220.620 -104.487 7.189 -0.701 -0.575 0.421
10209.310 -122.462 19.940 0.656 0.750 0.085
10236.385 -119.106 36.225 -0.538 0.225 0.812
10194.435 -120.656 20.925 -0.188 0.461 0.867
10271.060 -88.500 54.427 -0.017 -0.193 -0.981
10285.330 -89.367 86.605 -0.684 0.006 0.729
10268.455 -89.654 80.903 0.989 -0.120 0.087
10244.615 -97.086 74.656 -0.190 0.814 0.549
10229.620 -89.180 54.921 -0.702 -0.313 0.640
10218.310 -99.171 74.562 0.656 0.704 -0.273
10245.385 -88.632 87.423 -0.538 0.577 0.614
10203.435 -97.114 74.596 -0.188 0.811 0.554
1089.057 -5.489 103.751 -0.017 -0.918 -0.397
1103.331 20.498 122.746 -0.684 0.604 0.409
1086.453 15.643 119.743 0.989 0.004 0.149
1062.615 6.280 122.310 -0.191 0.914 -0.358
1047.622 -5.470 104.592 -0.701 0.350 0.622
1036.309 5.019 123.972 0.655 0.174 -0.735
1063.384 21.590 122.606 -0.539 0.833 -0.125
1021.434 6.215 122.299 -0.186 0.917 -0.352
10280.060 -53.073 89.319 -0.016 -0.627 -0.779
10294.330 -38.889 118.214 -0.684 0.345 0.643
10277.455 -41.792 113.298 0.989 -0.066 0.133
10253.615 -51.276 111.221 -0.189 0.976 0.107
10238.620 -53.447 90.072 -0.701 0.020 0.713
10227.310 -53.165 112.107 0.656 0.496 -0.569
10254.385 -37.856 118.597 -0.538 0.797 0.276
10212.435 -51.328 111.181 -0.188 0.976 0.113
10289.060 -5.489 103.751 -0.016 -0.917 -0.398
10303.330 20.498 122.746 -0.684 0.604 0.409
10286.455 15.643 119.743 0.989 0.004 0.149
10262.615 6.280 122.310 -0.189 0.914 -0.359
10247.620 -5.470 104.592 -0.701 0.349 0.622
10236.310 5.019 123.972 0.656 0.174 -0.735
10263.385 21.590 122.606 -0.538 0.834 -0.125
10221.435 6.215 122.299 -0.188 0.917 -0.353
10298.060 43.351 94.420 -0.016 -0.997 0.073
10312.330 75.189 99.164 -0.684 0.725 0.081
10295.455 69.494 98.761 0.989 0.072 0.130
10271.615 62.397 105.385 -0.190 0.642 -0.743
10256.620 43.758 95.156 -0.701 0.598 0.388
10245.310 62.053 107.442 0.656 -0.187 -0.731
10272.385 76.091 98.532 -0.538 0.680 -0.499
10230.435 62.334 105.405 -0.188 0.648 -0.738
10307.060 82.262 63.462 -0.017 -0.849 0.528
10321.330 112.659 52.867 -0.684 0.680 -0.264
10304.455 107.428 55.157 0.989 0.124 0.082
10280.615 104.221 64.321 -0.189 0.224 -0.956
10265.620 82.965 63.924 -0.701 0.710 0.066
10254.310 104.873 66.303 0.656 -0.505 -0.561
10281.385 113.163 51.889 -0.538 0.371 -0.757
10239.435 104.175 64.368 -0.188 0.230 -0.955
10279.060 102.340 17.914 -0.016 -0.506 0.863
10293.330 124.320 -5.603 -0.684 0.479 -0.550
10276.455 120.755 -1.143 0.989 0.148 0.014
10252.615 122.179 8.460 -0.189 -0.247 -0.950
10237.620 103.177 17.996 -0.701 0.659 -0.272
10226.310 123.677 9.912 0.656 -0.708 -0.261
10253.385 124.312 -6.704 -0.538 -0.024 -0.843
10211.435 122.161 8.523 -0.188 -0.240 -0.952
10288.060 98.945 -31.694 -0.016 -0.047 0.999
10302.330 107.479 -62.731 -0.684 0.168 -0.710
10285.455 106.394 -57.127 0.989 0.138 -0.056
10261.615 112.118 -49.284 -0.190 -0.660 -0.727
10246.620 99.724 -32.010 -0.701 0.457 -0.547
10235.310 114.119 -48.695 0.656 -0.749 0.097
10262.385 106.960 -63.702 -0.538 -0.413 -0.735
10220.435 112.130 -49.220 -0.188 -0.655 -0.732
10297.060 72.885 -74.042 -0.017 0.423 0.906
10311.330 66.019 -105.490 -0.684 -0.181 -0.707
10294.455 67.663 -100.024 0.989 0.096 -0.113
10270.615 76.376 -95.739 -0.189 -0.922 -0.337
10255.620 73.427 -74.684 -0.701 0.151 -0.697
10244.310 78.421 -96.148 0.656 -0.618 0.434
10271.385 65.108 -106.110 -0.538 -0.707 -0.458
10229.435 76.417 -95.689 -0.188 -0.920 -0.344
10306.060 30.132 -99.431 -0.016 0.795 0.606
10320.330 9.438 -124.088 -0.684 -0.488 -0.542
10303.455 13.434 -120.011 0.989 0.032 -0.145
10279.615 23.140 -120.266 -0.189 -0.973 0.130
10264.620 30.313 -100.252 -0.701 -0.190 -0.687
10253.310 24.761 -121.578 0.656 -0.345 0.671
10280.385 8.345 -124.213 -0.538 -0.839 -0.077
10238.435 23.200 -120.240 -0.188 -0.974 0.124
10315.060 -19.524 -102.046 -0.016 0.986 0.167
10329.330 -49.305 -114.262 -0.684 -0.684 -0.253
10312.455 -43.871 -112.510 0.989 -0.039 -0.143
10288.615 -35.396 -117.245 -0.189 -0.801 0.568
10273.620 -19.744 -102.857 -0.702 -0.487 -0.520
10262.310 -34.570 -119.160 0.656 0.006 0.755
10289.385 -50.331 -113.865 -0.538 -0.779 0.322
10247.435 -35.331 -117.250 -0.188 -0.805 0.562
10324.060 -64.707 -81.286 -0.016 0.951 -0.310
10338.330 -96.755 -78.265 -0.684 -0.723 0.095
10321.455 -91.129 -79.237 0.989 -0.101 -0.109
10297.615 -85.825 -87.370 -0.189 -0.446 0.875
10282.620 -65.279 -81.903 -0.701 -0.673 -0.234
10271.310 -85.983 -89.450 0.656 0.356 0.665
10298.385 -97.479 -77.436 -0.538 -0.540 0.647
10256.435 -85.769 -87.404 -0.188 -0.452 0.872
1098.057 43.351 94.420 -0.016 -0.997 0.074
1112.331 75.189 99.164 -0.684 0.725 0.081
1095.453 69.494 98.761 0.989 0.073 0.130
1071.615 62.397 105.385 -0.191 0.642 -0.742
1056.622 43.758 95.156 -0.701 0.598 0.388
1045.309 62.053 107.442 0.655 -0.187 -0.732
1072.384 76.091 98.532 -0.539 0.679 -0.498
1030.435 62.334 105.405 -0.187 0.648 -0.738
10333.060 -95.070 -41.908 -0.016 0.698 -0.716
10347.330 -122.042 -24.341 -0.684 -0.597 0.420
10330.455 -117.513 -27.816 0.989 -0.140 -0.049
10306.615 -116.594 -37.482 -0.190 0.012 0.982
10291.620 -95.862 -42.188 -0.701 -0.705 0.106
10280.310 -117.703 -39.250 0.656 0.625 0.423
10307.385 -122.298 -23.270 -0.538 -0.178 0.824
10265.435 -116.562 -37.538 -0.188 0.005 0.982
10342.060 -103.656 7.069 -0.016 0.285 -0.958
10356.330 -119.376 35.159 -0.684 -0.333 0.649
10339.455 -116.981 29.976 0.989 -0.147 0.022
10315.615 -120.660 20.991 -0.190 0.467 0.864
10300.620 -104.487 7.189 -0.701 -0.575 0.421
10289.310 -122.462 19.940 0.656 0.750 0.085
10316.385 -119.106 36.225 -0.538 0.225 0.812
10274.435 -120.656 20.925 -0.188 0.461 0.867
10351.060 -88.500 54.427 -0.017 -0.193 -0.981
10365.330 -89.367 86.605 -0.684 0.006 0.729
10348.455 -89.654 80.903 0.989 -0.120 0.087
10324.615 -97.086 74.656 -0.190 0.814 0.549
10309.620 -89.180 54.921 -0.702 -0.313 0.640
10298.310 -99.171 74.562 0.656 0.704 -0.273
10325.385 -88.632 87.423 -0.538 0.577 0.614
10283.435 -97.114 74.596 -0.188 0.811 0.554
10360.060 -53.073 89.319 -0.016 -0.627 -0.779
10374.330 -38.889 118.214 -0.684 0.345 0.643
10357.455 -41.792 113.298 0.989 -0.066 0.133
10333.615 -51.276 111.221 -0.189 0.976 0.107
10318.620 -53.447 90.072 -0.701 0.020 0.713
10307.310 -53.165 112.107 0.656 0.496 -0.569
10334.385 -37.856 118.597 -0.538 0.797 0.276
10292.435 -51.328 111.181 -0.188 0.976 0.113
10369.060 -5.489 103.751 -0.016 -0.917 -0.398
10383.330 20.498 122.746 -0.684 0.604 0.409
10366.455 15.643 119.743 0.989 0.004 0.149
10342.615 6.280 122.310 -0.189 0.914 -0.359
10327.620 -5.470 104.592 -0.701 0.349 0.622
10316.310 5.019 123.972 0.656 0.174 -0.735
10343.385 21.590 122.606 -0.538 0.834 -0.125
10301.435 6.215 122.299 -0.188 0.917 -0.353
10378.060 43.351 94.420 -0.016 -0.997 0.073
10392.330 75.189 99.164 -0.684 0.725 0.081
10375.455 69.494 98.761 0.989 0.072 0.130
10351.615 62.397 105.385 -0.190 0.642 -0.743
10336.620 43.758 95.156 -0.701 0.598 0.388
10325.310 62.053 107.442 0.656 -0.187 -0.731
10352.385 76.091 98.532 -0.538 0.680 -0.499
10310.435 62.334 105.405 -0.188 0.648 -0.738
10387.060 82.262 63.462 -0.017 -0.849 0.528
10401.330 112.659 52.867 -0.684 0.680 -0.264
10384.455 107.428 55.157 0.989 0.124 0.082
10360.615 104.221 64.321 -0.189 0.224 -0.956
10345.620 82.965 63.924 -0.701 0.710 0.066
10334.310 104.873 66.303 0.656 -0.505 -0.561
10361.385 113.163 51.889 -0.538 0.371 -0.757
10319.435 104.175 64.368 -0.188 0.230 -0.955
10359.060 102.340 17.914 -0.016 -0.506 0.863
10373.330 124.320 -5.603 -0.684 0.479 -0.550
10356.455 120.755 -1.143 0.989 0.148 0.014
10332.615 122.179 8.460 -0.189 -0.247 -0.950
10317.620 103.177 17.996 -0.701 0.659 -0.272
10306.310 123.677 9.912 0.656 -0.708 -0.261
10333.385 124.312 -6.704 -0.538 -0.024 -0.843
10291.435 122.161 8.523 -0.188 -0.240 -0.952
10368.060 98.945 -31.694 -0.016 -0.047 0.999
10382.330 107.479 -62.731 -0.684 0.168 -0.710
10365.455 106.394 -57.127 0.989 0.138 -0.056
10341.615 112.118 -49.284 -0.190 -0.660 -0.727
10326.620 99.724 -32.010 -0.701 0.457 -0.547
10315.310 114.119 -48.695 0.656 -0.749 0.097
10342.385 106.960 -63.702 -0.538 -0.413 -0.735
10300.435 112.130 -49.220 -0.188 -0.655 -0.732
10377.060 72.885 -74.042 -0.017 0.423 0.906
10391.330 66.019 -105.490 -0.684 -0.181 -0.707
10374.455 67.663 -100.024 0.989 0.096 -0.113
10350.615 76.376 -95.739 -0.189 -0.922 -0.337
10335.620 73.427 -74.684 -0.701 0.151 -0.697
10324.310 78.421 -96.148 0.656 -0.618 0.434
10351.385 65.108 -106.110 -0.538 -0.707 -0.458
10309.435 76.417 -95.689 -0.188 -0.920 -0.344
1107.057 82.262 63.462 -0.017 -0.848 0.529
1121.331 112.659 52.867 -0.684 0.680 -0.264
1104.453 107.428 55.157 0.989 0.125 0.081
1080.615 104.221 64.321 -0.191 0.224 -0.956
1065.622 82.965 63.924 -0.701 0.710 0.066
1054.309 104.873 66.303 0.655 -0.506 -0.561
1081.384 113.163 51.889 -0.539 0.370 -0.756
1039.435 104.175 64.368 -0.187 0.231 -0.955
10386.060 30.132 -99.431 -0.016 0.795 0.606
10400.330 9.438 -124.088 -0.684 -0.488 -0.542
10383.455 13.434 -120.011 0.989 0.032 -0.145
10359.615 23.140 -120.266 -0.189 -0.973 0.130
10344.620 30.313 -100.252 -0.701 -0.190 -0.687
10333.310 24.761 -121.578 0.656 -0.345 0.671
10360.385 8.345 -124.213 -0.538 -0.839 -0.077
10318.435 23.200 -120.240 -0.188 -0.974 0.124
10395.060 -19.524 -102.046 -0.016 0.986 0.167
10409.330 -49.305 -114.262 -0.684 -0.684 -0.253
10392.455 -43.871 -112.510 0.989 -0.039 -0.143
10368.615 -35.396 -117.245 -0.189 -0.801 0.568
10353.620 -19.744 -102.857 -0.702 -0.487 -0.520
10342.310 -34.570 -119.160 0.656 0.006 0.755
10369.385 -50.331 -113.865 -0.538 -0.779 0.322
10327.435 -35.331 -117.250 -0.188 -0.805 0.562
10404.060 -64.707 -81.286 -0.016 0.951 -0.310
10418.330 -96.755 -78.265 -0.684 -0.723 0.095
10401.455 -91.129 -79.237 0.989 -0.101 -0.109
10377.615 -85.825 -87.370 -0.189 -0.446 0.875
10362.620 -65.279 -81.903 -0.701 -0.673 -0.234
10351.310 -85.983 -89.450 0.656 0.356 0.665
10378.385 -97.479 -77.436 -0.538 -0.540 0.647
10336.435 -85.769 -87.404 -0.188 -0.452 0.872
10413.060 -95.070 -41.908 -0.016 0.698 -0.716
10427.330 -122.042 -24.341 -0.684 -0.597 0.420
10410.455 -117.513 -27.816 0.989 -0.140 -0.049
10386.615 -116.594 -37.482 -0.190 0.012 0.982
10371.620 -95.862 -42.188 -0.701 -0.705 0.106
10360.310 -117.703 -39.250 0.656 0.625 0.423
10387.385 -122.298 -23.270 -0.538 -0.178 0.824
10345.435 -116.562 -37.538 -0.188 0.005 0.982
10422.060 -103.656 7.069 -0.016 0.285 -0.958
10436.330 -119.376 35.159 -0.684 -0.333 0.649
10419.455 -116.981 29.976 0.989 -0.147 0.022
10395.615 -120.660 20.991 -0.190 0.467 0.864
10380.620 -104.487 7.189 -0.701 -0.575 0.421
10369.310 -122.462 19.940 0.656 0.750 0.085
10396.385 -119.106 36.225 -0.538 0.225 0.812
10354.435 -120.656 20.925 -0.188 0.461 0.867
10431.060 -88.500 54.427 -0.017 -0.193 -0.981
10445.330 -89.367 86.605 -0.684 0.006 0.729
10428.455 -89.654 80.903 0.989 -0.120 0.087
10404.615 -97.086 74.656 -0.190 0.814 0.549
10389.620 -89.180 54.921 -0.702 -0.313 0.640
10378.310 -99.171 74.562 0.656 0.704 -0.273
10405.385 -88.632 87.423 -0.538 0.577 0.614
10363.435 -97.114 74.596 -0.188 0.811 0.554
10440.060 -53.073 89.319 -0.016 -0.627 -0.779
10454.330 -38.889 118.214 -0.684 0.345 0.643
10437.455 -41.792 113.298 0.989 -0.066 0.133
10413.615 -51.276 111.221 -0.189 0.976 0.107
10398.620 -53.447 90.072 -0.701 0.020 0.713
10387.310 -53.165 112.107 0.656 0.496 -0.569
10414.385 -37.856 118.597 -0.538 0.797 0.276
10372.435 -51.328 111.181 -0.188 0.976 0.113
10449.060 -5.489 103.751 -0.016 -0.917 -0.398
10463.330 20.498 122.746 -0.684 0.604 0.409
10446.455 15.643 119.743 0.989 0.004 0.149
10422.615 6.280 122.310 -0.189 0.914 -0.359
10407.620 -5.470 104.592 -0.701 0.349 0.622
10396.310 5.019 123.972 0.656 0.174 -0.735
10423.385 21.590 122.606 -0.538 0.834 -0.125
10381.435 6.215 122.299 -0.188 0.917 -0.353
10458.060 43.351 94.420 -0.016 -0.997 0.073
10472.330 75.189 99.164 -0.684 0.725 0.081
10455.455 69.494 98.761 0.989 0.072 0.130
10431.615 62.397 105.385 -0.190 0.642 -0.743
10416.620 43.758 95.156 -0.701 0.598 0.388
10405.310 62.053 107.442 0.656 -0.187 -0.731
10432.385 76.091 98.532 -0.538 0.680 -0.499
10390.435 62.334 105.405 -0.188 0.648 -0.738
10467.060 82.262 63.462 -0.017 -0.849 0.528
10481.330 112.659 52.867 -0.684 0.680 -0.264
10464.455 107.428 55.157 0.989 0.124 0.082
10440.615 104.221 64.321 -0.189 0.224 -0.956
10425.620 82.965 63.924 -0.701 0.710 0.066
10414.310 104.873 66.303 0.656 -0.505 -0.561
10441.385 113.163 51.889 -0.538 0.371 -0.757
10399.435 104.175 64.368 -0.188 0.230 -0.955
1079.057 102.340 17.914 -0.016 -0.505 0.863
1093.331 124.320 -5.603 -0.684 0.479 -0.551
1076.453 120.755 -1.143 0.989 0.148 0.014
1052.615 122.179 8.460 -0.191 -0.246 -0.950
1037.622 103.177 17.996 -0.701 0.659 -0.272
1026.309 123.677 9.912 0.655 -0.709 -0.262
1053.384 124.312 -6.704 -0.539 -0.024 -0.842
1011.434 122.161 8.523 -0.186 -0.240 -0.953
10439.060 102.340 17.914 -0.016 -0.506 0.863
10453.330 124.320 -5.603 -0.684 0.479 -0.550
10436.455 120.755 -1.143 0.989 0.148 0.014
10412.615 122.179 8.460 -0.189 -0.247 -0.950
10397.620 103.177 17.996 -0.701 0.659 -0.272
10386.310 123.677 9.912 0.656 -0.708 -0.261
10413.385 124.312 -6.704 -0.538 -0.024 -0.843
10371.435 122.161 8.523 -0.188 -0.240 -0.952
10448.060 98.945 -31.694 -0.016 -0.047 0.999
10462.330 107.479 -62.731 -0.684 0.168 -0.710
10445.455 106.394 -57.127 0.989 0.138 -0.056
10421.615 112.118 -49.284 -0.190 -0.660 -0.727
10406.620 99.724 -32.010 -0.701 0.457 -0.547
10395.310 114.119 -48.695 0.656 -0.749 0.097
10422.385 106.960 -63.702 -0.538 -0.413 -0.735
10380.435 112.130 -49.220 -0.188 -0.655 -0.732
10457.060 72.885 -74.042 -0.017 0.423 0.906
10471.330 66.019 -105.490 -0.684 -0.181 -0.707
10454.455 67.663 -100.024 0.989 0.096 -0.113
10430.615 76.376 -95.739 -0.189 -0.922 -0.337
10415.620 73.427 -74.684 -0.701 0.151 -0.697
10404.310 78.421 -96.148 0.656 -0.618 0.434
10431.385 65.108 -106.110 -0.538 -0.707 -0.458
10389.435 76.417 -95.689 -0.188 -0.920 -0.344
10466.060 30.132 -99.431 -0.016 0.795 0.606
10480.330 9.438 -124.088 -0.684 -0.488 -0.542
10463.455 13.434 -120.011 0.989 0.032 -0.145
10439.615 23.140 -120.266 -0.189 -0.973 0.130
10424.620 30.313 -100.252 -0.701 -0.190 -0.687
10413.310 24.761 -121.578 0.656 -0.345 0.671
10440.385 8.345 -124.213 -0.538 -0.839 -0.077
10398.435 23.200 -120.240 -0.188 -0.974 0.124
10475.060 -19.524 -102.046 -0.016 0.986 0.167
10489.330 -49.305 -114.262 -0.684 -0.684 -0.253
10472.455 -43.871 -112.510 0.989 -0.039 -0.143
10448.615 -35.396 -117.245 -0.189 -0.801 0.568
10433.620 -19.744 -102.857 -0.702 -0.487 -0.520
10422.310 -34.570 -119.160 0.656 0.006 0.755
10449.385 -50.331 -113.865 -0.538 -0.779 0.322
10407.435 -35.331 -117.250 -0.188 -0.805 0.562
10484.060 -64.707 -81.286 -0.016 0.951 -0.310
10498.330 -96.755 -78.265 -0.684 -0.723 0.095
10481.455 -91.129 -79.237 0.989 -0.101 -0.109
10457.615 -85.825 -87.370 -0.189 -0.446 0.875
10442.620 -65.279 -81.903 -0.701 -0.673 -0.234
10431.310 -85.983 -89.450 0.656 0.356 0.665
10458.385 -97.479 -77.436 -0.538 -0.540 0.647
10416.435 -85.769 -87.404 -0.188 -0.452 0.872
10493.060 -95.070 -41.908 -0.016 0.698 -0.716
10507.330 -122.042 -24.341 -0.684 -0.597 0.420
10490.455 -117.513 -27.816 0.989 -0.140 -0.049
10466.615 -116.594 -37.482 -0.190 0.012 0.982
10451.620 -95.862 -42.188 -0.701 -0.705 0.106
10440.310 -117.703 -39.250 0.656 0.625 0.423
10467.385 -122.298 -23.270 -0.538 -0.178 0.824
10425.435 -116.562 -37.538 -0.188 0.005 0.982
10502.060 -103.656 7.069 -0.016 0.285 -0.958
10516.330 -119.376 35.159 -0.684 -0.333 0.649
10499.455 -116.981 29.976 0.989 -0.147 0.022
10475.615 -120.660 20.991 -0.190 0.467 0.864
10460.620 -104.487 7.189 -0.701 -0.575 0.421
10449.310 -122.462 19.940 0.656 0.750 0.085
10476.385 -119.106 36.225 -0.538 0.225 0.812
10434.435 -120.656 20.925 -0.188 0.461 0.867
10511.060 -88.500 54.427 -0.017 -0.193 -0.981
10525.330 -89.367 86.605 -0.684 0.006 0.729
10508.455 -89.654 80.903 0.989 -0.120 0.087
10484.615 -97.086 74.656 -0.190 0.814 0.549
10469.620 -89.180 54.921 -0.702 -0.313 0.640
10458.310 -99.171 74.562 0.656 0.704 -0.273
10485.385 -88.632 87.423 -0.538 0.577 0.614
10443.435 -97.114 74.596 -0.188 0.811 0.554
10520.060 -53.073 89.319 -0.016 -0.627 -0.779
10534.330 -38.889 118.214 -0.684 0.345 0.643
10517.455 -41.792 113.298 0.989 -0.066 0.133
10493.615 -51.276 111.221 -0.189 0.976 0.107
10478.620 -53.447 90.072 -0.701 0.020 0.713
10467.310 -53.165 112.107 0.656 0.496 -0.569
10494.385 -37.856 118.597 -0.538 0.797 0.276
10452.435 -51.328 111.181 -0.188 0.976 0.113
155.057 -19.524 -102.046 -0.017 0.986 0.166
169.331 -49.305 -114.262 -0.684 -0.685 -0.253
152.453 -43.871 -112.510 0.989 -0.039 -0.143
128.615 -35.396 -117.245 -0.191 -0.801 0.567
113.622 -19.744 -102.857 -0.701 -0.488 -0.520
102.309 -34.570 -119.160 0.655 0.006 0.755
129.384 -50.331 -113.865 -0.539 -0.778 0.322
87.434 -35.331 -117.250 -0.186 -0.806 0.562
1088.057 98.945 -31.694 -0.016 -0.046 0.999
1102.331 107.479 -62.731 -0.684 0.168 -0.710
1085.453 106.394 -57.127 0.989 0.138 -0.056
1061.615 112.118 -49.284 -0.192 -0.659 -0.727
1046.622 99.724 -32.010 -0.701 0.457 -0.547
1035.309 114.119 -48.695 0.655 -0.749 0.097
1062.384 106.960 -63.702 -0.539 -0.413 -0.734
1020.434 112.130 -49.220 -0.187 -0.655 -0.732
10529.060 -5.489 103.751 -0.016 -0.917 -0.398
10543.330 20.498 122.746 -0.684 0.604 0.409
10526.455 15.643 119.743 0.989 0.004 0.149
10502.615 6.280 122.310 -0.189 0.914 -0.359
10487.620 -5.470 104.592 -0.701 0.349 0.622
10476.310 5.019 123.972 0.656 0.174 -0.735
10503.385 21.590 122.606 -0.538 0.834 -0.125
10461.435 6.215 122.299 -0.188 0.917 -0.353
10538.060 43.351 94.420 -0.016 -0.997 0.073
10552.330 75.189 99.164 -0.684 0.725 0.081
10535.455 69.494 98.761 0.989 0.072 0.130
10511.615 62.397 105.385 -0.190 0.642 -0.743
10496.620 43.758 95.156 -0.701 0.598 0.388
10485.310 62.053 107.442 0.656 -0.187 -0.731
10512.385 76.091 98.532 -0.538 0.680 -0.499
10470.435 62.334 105.405 -0.188 0.648 -0.738
10547.060 82.262 63.462 -0.017 -0.849 0.528
10561.330 112.659 52.867 -0.684 0.680 -0.264
10544.455 107.428 55.157 0.989 0.124 0.082
10520.615 104.221 64.321 -0.189 0.224 -0.956
10505.620 82.965 63.924 -0.701 0.710 0.066
10494.310 104.873 66.303 0.656 -0.505 -0.561
10521.385 113.163 51.889 -0.538 0.371 -0.757
10479.435 104.175 64.368 -0.188 0.230 -0.955
10519.060 102.340 17.914 -0.016 -0.506 0.863
10533.330 124.320 -5.603 -0.684 0.479 -0.550
10516.455 120.755 -1.143 0.989 0.148 0.014
10492.615 122.179 8.460 -0.189 -0.247 -0.950
10477.620 103.177 17.996 -0.701 0.659 -0.272
10466.310 123.677 9.912 0.656 -0.708 -0.261
10493.385 124.312 -6.704 -0.538 -0.024 -0.843
10451.435 122.161 8.523 -0.188 -0.240 -0.952
10528.060 98.945 -31.694 -0.016 -0.047 0.999
10542.330 107.479 -62.731 -0.684 0.168 -0.710
10525.455 106.394 -57.127 0.989 0.138 -0.056
10501.615 112.118 -49.284 -0.190 -0.660 -0.727
10486.620 99.724 -32.010 -0.701 0.457 -0.547
10475.310 114.119 -48.695 0.656 -0.749 0.097
10502.385 106.960 -63.702 -0.538 -0.413 -0.735
10460.435 112.130 -49.220 -0.188 -0.655 -0.732
10537.060 72.885 -74.042 -0.017 0.423 0.906
10551.330 66.019 -105.490 -0.684 -0.181 -0.707
10534.455 67.663 -100.024 0.989 0.096 -0.113
10510.615 76.376 -95.739 -0.189 -0.922 -0.337
10495.620 73.427 -74.684 -0.701 0.151 -0.697
10484.310 78.421 -96.148 0.656 -0.618 0.434
10511.385 65.108 -106.110 -0.538 -0.707 -0.458
10469.435 76.417 -95.689 -0.188 -0.920 -0.344
10546.060 30.132 -99.431 -0.016 0.795 0.606
10560.330 9.438 -124.088 -0.684 -0.488 -0.542
10543.455 13.434 -120.011 0.989 0.032 -0.145
10519.615 23.140 -120.266 -0.189 -0.973 0.130
10504.620 30.313 -100.252 -0.701 -0.190 -0.687
10493.310 24.761 -121.578 0.656 -0.345 0.671
10520.385 8.345 -124.213 -0.538 -0.839 -0.077
10478.435 23.200 -120.240 -0.188 -0.974 0.124
10555.060 -19.524 -102.046 -0.016 0.986 0.167
10569.330 -49.305 -114.262 -0.684 -0.684 -0.253
10552.455 -43.871 -112.510 0.989 -0.039 -0.143
10528.615 -35.396 -117.245 -0.189 -0.801 0.568
10513.620 -19.744 -102.857 -0.702 -0.487 -0.520
10502.310 -34.570 -119.160 0.656 0.006 0.755
10529.385 -50.331 -113.865 -0.538 -0.779 0.322
10487.435 -35.331 -117.250 -0.188 -0.805 0.562
10564.060 -64.707 -81.286 -0.016 0.951 -0.310
10578.330 -96.755 -78.265 -0.684 -0.723 0.095
10561.455 -91.129 -79.237 0.989 -0.101 -0.109
10537.615 -85.825 -87.370 -0.189 -0.446 0.875
10522.620 -65.279 -81.903 -0.701 -0.673 -0.234
10511.310 -85.983 -89.450 0.656 0.356 0.665
10538.385 -97.479 -77.436 -0.538 -0.540 0.647
10496.435 -85.769 -87.404 -0.188 -0.452 0.872
10573.060 -95.070 -41.908 -0.016 0.698 -0.716
10587.330 -122.042 -24.341 -0.684 -0.597 0.420
10570.455 -117.513 -27.816 0.989 -0.140 -0.049
10546.615 -116.594 -37.482 -0.190 0.012 0.982
10531.620 -95.862 -42.188 -0.701 -0.705 0.106
10520.310 -117.703 -39.250 0.656 0.625 0.423
10547.385 -122.298 -23.270 -0.538 -0.178 0.824
10505.435 -116.562 -37.538 -0.188 0.005 0.982
1097.057 72.885 -74.042 -0.017 0.424 0.906
1111.331 66.019 -105.490 -0.684 -0.181 -0.707
1094.453 67.663 -100.024 0.989 0.095 -0.114
1070.615 76.376 -95.739 -0.191 -0.922 -0.337
1055.622 73.427 -74.684 -0.701 0.150 -0.697
1044.309 78.421 -96.148 0.655 -0.618 0.434
1071.384 65.108 -106.110 -0.539 -0.707 -0.458
1029.435 76.417 -95.689 -0.187 -0.920 -0.344
10582.060 -103.656 7.069 -0.016 0.285 -0.958
10596.330 -119.376 35.159 -0.684 -0.333 0.649
10579.455 -116.981 29.976 0.989 -0.147 0.022
10555.615 -120.660 20.991 -0.190 0.467 0.864
10540.620 -104.487 7.189 -0.701 -0.575 0.421
10529.310 -122.462 19.940 0.656 0.750 0.085
10556.385 -119.106 36.225 -0.538 0.225 0.812
10514.435 -120.656 20.925 -0.188 0.461 0.867
10591.060 -88.500 54.427 -0.017 -0.193 -0.981
10605.330 -89.367 86.605 -0.684 0.006 0.729
10588.455 -89.654 80.903 0.989 -0.120 0.087
10564.615 -97.086 74.656 -0.190 0.814 0.549
10549.620 -89.180 54.921 -0.702 -0.313 0.640
10538.310 -99.171 74.562 0.656 0.704 -0.273
10565.385 -88.632 87.423 -0.538 0.577 0.614
10523.435 -97.114 74.596 -0.188 0.811 0.554
10600.060 -53.073 89.319 -0.016 -0.627 -0.779
10614.330 -38.889 118.214 -0.684 0.345 0.643
10597.455 -41.792 113.298 0.989 -0.066 0.133
10573.615 -51.276 111.221 -0.189 0.976 0.107
10558.620 -53.447 90.072 -0.701 0.020 0.713
10547.310 -53.165 112.107 0.656 0.496 -0.569
10574.385 -37.856 118.597 -0.538 0.797 0.276
10532.435 -51.328 111.181 -0.188 0.976 0.113
10609.060 -5.489 103.751 -0.016 -0.917 -0.398
10623.330 20.498 122.746 -0.684 0.604 0.409
10606.455 15.643 119.743 0.989 0.004 0.149
10582.615 6.280 122.310 -0.189 0.914 -0.359
10567.620 -5.470 104.592 -0.701 0.349 0.622
10556.310 5.019 123.972 0.656 0.174 -0.735
10583.385 21.590 122.606 -0.538 0.834 -0.125
10541.435 6.215 122.299 -0.188 0.917 -0.353
10618.060 43.351 94.420 -0.016 -0.997 0.073
10632.330 75.189 99.164 -0.684 0.725 0.081
10615.455 69.494 98.761 0.989 0.072 0.130
10591.615 62.397 105.385 -0.190 0.642 -0.743
10576.620 43.758 95.156 -0.701 0.598 0.388
10565.310 62.053 107.442 0.656 -0.187 -0.731
10592.385 76.091 98.532 -0.538 0.680 -0.499
10550.435 62.334 105.405 -0.188 0.648 -0.738
10627.060 82.262 63.462 -0.017 -0.849 0.528
10641.330 112.659 52.867 -0.684 0.680 -0.264
10624.455 107.428 55.157 0.989 0.124 0.082
10600.615 104.221 64.321 -0.189 0.224 -0.956
10585.620 82.965 63.924 -0.701 0.710 0.066
10574.310 104.873 66.303 0.656 -0.505 -0.561
10601.385 113.163 51.889 -0.538 0.371 -0.757
10559.435 104.175 64.368 -0.188 0.230 -0.955
10599.060 102.340 17.914 -0.016 -0.506 0.863
10613.330 124.320 -5.603 -0.684 0.479 -0.550
10596.455 120.755 -1.143 0.989 0.148 0.014
10572.615 122.179 8.460 -0.189 -0.247 -0.950
10557.620 103.177 17.996 -0.701 0.659 -0.272
10546.310 123.677 9.912 0.656 -0.708 -0.261
10573.385 124.312 -6.704 -0.538 -0.024 -0.843
10531.435 122.161 8.523 -0.188 -0.240 -0.952
10608.060 98.945 -31.694 -0.016 -0.047 0.999
10622.330 107.479 -62.731 -0.684 0.168 -0.710
10605.455 106.394 -57.127 0.989 0.138 -0.056
10581.615 112.118 -49.284 -0.190 -0.660 -0.727
10566.620 99.724 -32.010 -0.701 0.457 -0.547
10555.310 114.119 -48.695 0.656 -0.749 0.097
10582.385 106.960 -63.702 -0.538 -0.413 -0.735
10540.435 112.130 -49.220 -0.188 -0.655 -0.732
10617.060 72.885 -74.042 -0.017 0.423 0.906
10631.330 66.019 -105.490 -0.684 -0.181 -0.707
10614.455 67.663 -100.024 0.989 0.096 -0.113
10590.615 76.376 -95.739 -0.189 -0.922 -0.337
10575.620 73.427 -74.684 -0.701 0.151 -0.697
10564.310 78.421 -96.148 0.656 -0.618 0.434
10591.385 65.108 -106.110 -0.538 -0.707 -0.458
10549.435 76.417 -95.689 -0.188 -0.920 -0.344
10626.060 30.132 -99.431 -0.016 0.795 0.606
10640.330 9.438 -124.088 -0.684 -0.488 -0.542
10623.455 13.434 -120.011 0.989 0.032 -0.145
10599.615 23.140 -120.266 -0.189 -0.973 0.130
10584.620 30.313 -100.252 -0.701 -0.190 -0.687
10573.310 24.761 -121.578 0.656 -0.345 0.671
10600.385 8.345 -124.213 -0.538 -0.839 -0.077
10558.435 23.200 -120.240 -0.188 -0.974 0.124
1106.057 30.132 -99.431 -0.017 0.796 0.605
1120.331 9.438 -124.088 -0.684 -0.489 -0.542
1103.453 13.434 -120.011 0.989 0.032 -0.145
1079.615 23.140 -120.266 -0.191 -0.973 0.130
1064.622 30.313 -100.252 -0.701 -0.190 -0.687
1053.309 24.761 -121.578 0.655 -0.345 0.672
1080.384 8.345 -124.213 -0.539 -0.839 -0.077
1038.435 23.200 -120.240 -0.186 -0.975 0.123
10635.060 -19.524 -102.046 -0.016 0.986 0.167
10649.330 -49.305 -114.262 -0.684 -0.684 -0.253
10632.455 -43.871 -112.510 0.989 -0.039 -0.143
10608.615 -35.396 -117.245 -0.189 -0.801 0.568
10593.620 -19.744 -102.857 -0.702 -0.487 -0.520
10582.310 -34.570 -119.160 0.656 0.006 0.755
10609.385 -50.331 -113.865 -0.538 -0.779 0.322
10567.435 -35.331 -117.250 -0.188 -0.805 0.562
10644.060 -64.707 -81.286 -0.016 0.951 -0.310
10658.330 -96.755 -78.265 -0.684 -0.723 0.095
10641.455 -91.129 -79.237 0.989 -0.101 -0.109
10617.615 -85.825 -87.370 -0.189 -0.446 0.875
10602.620 -65.279 -81.903 -0.701 -0.673 -0.234
10591.310 -85.983 -89.450 0.656 0.356 0.665
10618.385 -97.479 -77.436 -0.538 -0.540 0.647
10576.435 -85.769 -87.404 -0.188 -0.452 0.872
10653.060 -95.070 -41.908 -0.016 0.698 -0.716
10667.330 -122.042 -24.341 -0.684 -0.597 0.420
10650.455 -117.513 -27.816 0.989 -0.140 -0.049
10626.615 -116.594 -37.482 -0.190 0.012 0.982
10611.620 -95.862 -42.188 -0.701 -0.705 0.106
10600.310 -117.703 -39.250 0.656 0.625 0.423
10627.385 -122.298 -23.270 -0.538 -0.178 0.824
10585.435 -116.562 -37.538 -0.188 0.005 0.982
10662.060 -103.656 7.069 -0.016 0.285 -0.958
10676.330 -119.376 35.159 -0.684 -0.333 0.649
10659.455 -116.981 29.976 0.989 -0.147 0.022
10635.615 -120.660 20.991 -0.190 0.467 0.864
10620.620 -104.487 7.189 -0.701 -0.575 0.421
10609.310 -122.462 19.940 0.656 0.750 0.085
10636.385 -119.106 36.225 -0.538 0.225 0.812
10594.435 -120.656 20.925 -0.188 0.461 0.867
10671.060 -88.500 54.427 -0.017 -0.193 -0.981
10685.330 -89.367 86.605 -0.684 0.006 0.729
10668.455 -89.654 80.903 0.989 -0.120 0.087
10644.615 -97.086 74.656 -0.190 0.814 0.549
10629.620 -89.180 54.921 -0.702 -0.313 0.640
10618.310 -99.171 74.562 0.656 0.704 -0.273
10645.385 -88.632 87.423 -0.538 0.577 0.614
10603.435 -97.114 74.596 -0.188 0.811 0.554
10680.060 -53.073 89.319 -0.016 -0.627 -0.779
10694.330 -38.889 118.214 -0.684 0.345 0.643
10677.455 -41.792 113.298 0.989 -0.066 0.133
10653.615 -51.276 111.221 -0.189 0.976 0.107
10638.620 -53.447 90.072 -0.701 0.020 0.713
10627.310 -53.165 112.107 0.656 0.496 -0.569
10654.385 -37.856 118.597 -0.538 0.797 0.276
10612.435 -51.328 111.181 -0.188 0.976 0.113
10689.060 -5.489 103.751 -0.016 -0.917 -0.398
10703.330 20.498 122.746 -0.684 0.604 0.409
10686.455 15.643 119.743 0.989 0.004 0.149
10662.615 6.280 122.310 -0.189 0.914 -0.359
10647.620 -5.470 104.592 -0.701 0.349 0.622
10636.310 5.019 123.972 0.656 0.174 -0.735
10663.385 21.590 122.606 -0.538 0.834 -0.125
10621.435 6.215 122.299 -0.188 0.917 -0.353
10698.060 43.351 94.420 -0.016 -0.997 0.073
10712.330 75.189 99.164 -0.684 0.725 0.081
10695.455 69.494 98.761 0.989 0.072 0.130
10671.615 62.397 105.385 -0.190 0.642 -0.743
10656.620 43.758 95.156 -0.701 0.598 0.388
10645.310 62.053 107.442 0.656 -0.187 -0.731
10672.385 76.091 98.532 -0.538 0.680 -0.499
10630.435 62.334 105.405 -0.188 0.648 -0.738
10707.060 82.262 63.462 -0.017 -0.849 0.528
10721.330 112.659 52.867 -0.684 0.680 -0.264
10704.455 107.428 55.157 0.989 0.124 0.082
10680.615 104.221 64.321 -0.189 0.224 -0.956
10665.620 82.965 63.924 -0.701 0.710 0.066
10654.310 104.873 66.303 0.656 -0.505 -0.561
10681.385 113.163 51.889 -0.538 0.371 -0.757
10639.435 104.175 64.368 -0.188 0.230 -0.955
10679.060 102.340 17.914 -0.016 -0.506 0.863
10693.330 124.320 -5.603 -0.684 0.479 -0.550
10676.455 120.755 -1.143 0.989 0.148 0.014
10652.615 122.179 8.460 -0.189 -0.247 -0.950
10637.620 103.177 17.996 -0.701 0.659 -0.272
10626.310 123.677 9.912 0.656 -0.708 -0.261
10653.385 124.312 -6.704 -0.538 -0.024 -0.843
10611.435 122.161 8.523 -0.188 -0.240 -0.952
1115.057 -19.524 -102.046 -0.017 0.986 0.166
1129.331 -49.305 -114.262 -0.684 -0.685 -0.253
1112.453 -43.871 -112.510 0.989 -0.039 -0.143
1088.615 -35.396 -117.245 -0.191 -0.801 0.567
1073.622 -19.744 -102.857 -0.701 -0.488 -0.520
1062.309 -34.570 -119.160 0.655 0.006 0.755
1089.384 -50.331 -113.865 -0.539 -0.778 0.322
1047.435 -35.331 -117.250 -0.186 -0.806 0.562
10688.060 98.945 -31.694 -0.016 -0.047 0.999
10702.330 107.479 -62.731 -0.684 0.168 -0.710
10685.455 106.394 -57.127 0.989 0.138 -0.056
10661.615 112.118 -49.284 -0.190 -0.660 -0.727
10646.620 99.724 -32.010 -0.701 0.457 -0.547
10635.310 114.119 -48.695 0.656 -0.749 0.097
10662.385 106.960 -63.702 -0.538 -0.413 -0.735
10620.435 112.130 -49.220 -0.188 -0.655 -0.732
10697.060 72.885 -74.042 -0.017 0.423 0.906
10711.330 66.019 -105.490 -0.684 -0.181 -0.707
10694.455 67.663 -100.024 0.989 0.096 -0.113
10670.615 76.376 -95.739 -0.189 -0.922 -0.337
10655.620 73.427 -74.684 -0.701 0.151 -0.697
10644.310 78.421 -96.148 0.656 -0.618 0.434
10671.385 65.108 -106.110 -0.538 -0.707 -0.458
10629.435 76.417 -95.689 -0.188 -0.920 -0.344
10706.060 30.132 -99.431 -0.016 0.795 0.606
10720.330 9.438 -124.088 -0.684 -0.488 -0.542
10703.455 13.434 -120.011 0.989 0.032 -0.145
10679.615 23.140 -120.266 -0.189 -0.973 0.130
10664.620 30.313 -100.252 -0.701 -0.190 -0.687
10653.310 24.761 -121.578 0.656 -0.345 0.671
10680.385 8.345 -124.213 -0.538 -0.839 -0.077
10638.435 23.200 -120.240 -0.188 -0.974 0.124
10715.060 -19.524 -102.046 -0.016 0.986 0.167
10729.330 -49.305 -114.262 -0.684 -0.684 -0.253
10712.455 -43.871 -112.510 0.989 -0.039 -0.143
10688.615 -35.396 -117.245 -0.189 -0.801 0.568
10673.620 -19.744 -102.857 -0.702 -0.487 -0.520
10662.310 -34.570 -119.160 0.656 0.006 0.755
10689.385 -50.331 -113.865 -0.538 -0.779 0.322
10647.435 -35.331 -117.250 -0.188 -0.805 0.562
10724.060 -64.707 -81.286 -0.016 0.951 -0.310
10738.330 -96.755 -78.265 -0.684 -0.723 0.095
10721.455 -91.129 -79.237 0.989 -0.101 -0.109
10697.615 -85.825 -87.370 -0.189 -0.446 0.875
10682.620 -65.279 -81.903 -0.701 -0.673 -0.234
10671.310 -85.983 -89.450 0.656 0.356 0.665
10698.385 -97.479 -77.436 -0.538 -0.540 0.647
10656.435 -85.769 -87.404 -0.188 -0.452 0.872
10733.060 -95.070 -41.908 -0.016 0.698 -0.716
10747.330 -122.042 -24.341 -0.684 -0.597 0.420
10730.455 -117.513 -27.816 0.989 -0.140 -0.049
10706.615 -116.594 -37.482 -0.190 0.012 0.982
10691.620 -95.862 -42.188 -0.701 -0.705 0.106
10680.310 -117.703 -39.250 0.656 0.625 0.423
10707.385 -122.298 -23.270 -0.538 -0.178 0.824
10665.435 -116.562 -37.538 -0.188 0.005 0.982
10742.060 -103.656 7.069 -0.016 0.285 -0.958
10756.330 -119.376 35.159 -0.684 -0.333 0.649
10739.455 -116.981 29.976 0.989 -0.147 0.022
10715.615 -120.660 20.991 -0.190 0.467 0.864
10700.620 -104.487 7.189 -0.701 -0.575 0.421
10689.310 -122.462 19.940 0.656 0.750 0.085
10716.385 -119.106 36.225 -0.538 0.225 0.812
10674.435 -120.656 20.925 -0.188 0.461 0.867
10751.060 -88.500 54.427 -0.017 -0.193 -0.981
10765.330 -89.367 86.605 -0.684 0.006 0.729
10748.455 -89.654 80.903 0.989 -0.120 0.087
10724.615 -97.086 74.656 -0.190 0.814 0.549
10709.620 -89.180 54.921 -0.702 -0.313 0.640
10698.310 -99.171 74.562 0.656 0.704 -0.273
10725.385 -88.632 87.423 -0.538 0.577 0.614
10683.435 -97.114 74.596 -0.188 0.811 0.554
10760.060 -53.073 89.319 -0.016 -0.627 -0.779
10774.330 -38.889 118.214 -0.684 0.345 0.643
10757.455 -41.792 113.298 0.989 -0.066 0.133
10733.615 -51.276 111.221 -0.189 0.976 0.107
10718.620 -53.447 90.072 -0.701 0.020 0.713
10707.310 -53.165 112.107 0.656 0.496 -0.569
10734.385 -37.856 118.597 -0.538 0.797 0.276
10692.435 -51.328 111.181 -0.188 0.976 0.113
10769.060 -5.489 103.751 -0.016 -0.917 -0.398
10783.330 20.498 122.746 -0.684 0.604 0.409
10766.455 15.643 119.743 0.989 0.004 0.149
10742.615 6.280 122.310 -0.189 0.914 -0.359
10727.620 -5.470 104.592 -0.701 0.349 0.622
10716.310 5.019 123.972 0.656 0.174 -0.735
10743.385 21.590 122.606 -0.538 0.834 -0.125
10701.435 6.215 122.299 -0.188 0.917 -0.353
1124.057 -64.707 -81.286 -0.017 0.950 -0.311
1138.331 -96.755 -78.265 -0.684 -0.724 0.095
1121.453 -91.129 -79.237 0.989 -0.102 -0.109
1097.615 -85.825 -87.370 -0.191 -0.446 0.874
1082.622 -65.279 -81.903 -0.701 -0.674 -0.234
1071.309 -85.983 -89.450 0.655 0.357 0.666
1098.384 -97.479 -77.436 -0.539 -0.540 0.647
1056.435 -85.769 -87.404 -0.186 -0.452 0.872
10778.060 43.351 94.420 -0.016 -0.997 0.073
10792.330 75.189 99.164 -0.684 0.725 0.081
10775.455 69.494 98.761 0.989 0.072 0.130
10751.615 62.397 105.385 -0.190 0.642 -0.743
10736.620 43.758 95.156 -0.701 0.598 0.388
10725.310 62.053 107.442 0.656 -0.187 -0.731
10752.385 76.091 98.532 -0.538 0.680 -0.499
10710.435 62.334 105.405 -0.188 0.648 -0.738
10787.060 82.262 63.462 -0.017 -0.849 0.528
10801.330 112.659 52.867 -0.684 0.680 -0.264
10784.455 107.428 55.157 0.989 0.124 0.082
10760.615 104.221 64.321 -0.189 0.224 -0.956
10745.620 82.965 63.924 -0.701 0.710 0.066
10734.310 104.873 66.303 0.656 -0.505 -0.561
10761.385 113.163 51.889 -0.538 0.371 -0.757
10719.435 104.175 64.368 -0.188 0.230 -0.955
10759.060 102.340 17.914 -0.016 -0.506 0.863
10773.330 124.320 -5.603 -0.684 0.479 -0.550
10756.455 120.755 -1.143 0.989 0.148 0.014
10732.615 122.179 8.460 -0.189 -0.247 -0.950
10717.620 103.177 17.996 -0.701 0.659 -0.272
10706.310 123.677 9.912 0.656 -0.708 -0.261
10733.385 124.312 -6.704 -0.538 -0.024 -0.843
10691.435 122.161 8.523 -0.188 -0.240 -0.952
10768.060 98.945 -31.694 -0.016 -0.047 0.999
10782.330 107.479 -62.731 -0.684 0.168 -0.710
10765.455 106.394 -57.127 0.989 0.138 -0.056
10741.615 112.118 -49.284 -0.190 -0.660 -0.727
10726.620 99.724 -32.010 -0.701 0.457 -0.547
10715.310 114.119 -48.695 0.656 -0.749 0.097
10742.385 106.960 -63.702 -0.538 -0.413 -0.735
10700.435 112.130 -49.220 -0.188 -0.655 -0.732
10777.060 72.885 -74.042 -0.017 0.423 0.906
10791.330 66.019 -105.490 -0.684 -0.181 -0.707
10774.455 67.663 -100.024 0.989 0.096 -0.113
10750.615 76.376 -95.739 -0.189 -0.922 -0.337
10735.620 73.427 -74.684 -0.701 0.151 -0.697
10724.310 78.421 -96.148 0.656 -0.618 0.434
10751.385 65.108 -106.110 -0.538 -0.707 -0.458
10709.435 76.417 -95.689 -0.188 -0.920 -0.344
10786.060 30.132 -99.431 -0.016 0.795 0.606
10800.330 9.438 -124.088 -0.684 -0.488 -0.542
10783.455 13.434 -120.011 0.989 0.032 -0.145
10759.615 23.140 -120.266 -0.189 -0.973 0.130
10744.620 30.313 -100.252 -0.701 -0.190 -0.687
10733.310 24.761 -121.578 0.656 -0.345 0.671
10760.385 8.345 -124.213 -0.538 -0.839 -0.077
10718.435 23.200 -120.240 -0.188 -0.974 0.124
10795.060 -19.524 -102.046 -0.016 0.986 0.167
10809.330 -49.305 -114.262 -0.684 -0.684 -0.253
10792.455 -43.871 -112.510 0.989 -0.039 -0.143
10768.615 -35.396 -117.245 -0.189 -0.801 0.568
10753.620 -19.744 -102.857 -0.702 -0.487 -0.520
10742.310 -34.570 -119.160 0.656 0.006 0.755
10769.385 -50.331 -113.865 -0.538 -0.779 0.322
10727.435 -35.331 -117.250 -0.188 -0.805 0.562
10804.060 -64.707 -81.286 -0.016 0.951 -0.310
10818.330 -96.755 -78.265 -0.684 -0.723 0.095
10801.455 -91.129 -79.237 0.989 -0.101 -0.109
10777.615 -85.825 -87.370 -0.189 -0.446 0.875
10762.620 -65.279 -81.903 -0.701 -0.673 -0.234
10751.310 -85.983 -89.450 0.656 0.356 0.665
10778.385 -97.479 -77.436 -0.538 -0.540 0.647
10736.435 -85.769 -87.404 -0.188 -0.452 0.872
10813.060 -95.070 -41.908 -0.016 0.698 -0.716
10827.330 -122.042 -24.341 -0.684 -0.597 0.420
10810.455 -117.513 -27.816 0.989 -0.140 -0.049
10786.615 -116.594 -37.482 -0.190 0.012 0.982
10771.620 -95.862 -42.188 -0.701 -0.705 0.106
10760.310 -117.703 -39.250 0.656 0.625 0.423
10787.385 -122.298 -23.270 -0.538 -0.178 0.824
10745.435 -116.562 -37.538 -0.188 0.005 0.982
10822.060 -103.656 7.069 -0.016 0.285 -0.958
10836.330 -119.376 35.159 -0.684 -0.333 0.649
10819.455 -116.981 29.976 0.989 -0.147 0.022
10795.615 -120.660 20.991 -0.190 0.467 0.864
10780.620 -104.487 7.189 -0.701 -0.575 0.421
10769.310 -122.462 19.940 0.656 0.750 0.085
10796.385 -119.106 36.225 -0.538 0.225 0.812
10754.435 -120.656 20.925 -0.188 0.461 0.867
1133.057 -95.070 -41.908 -0.017 0.697 -0.717
1147.331 -122.042 -24.341 -0.684 -0.597 0.420
1130.453 -117.513 -27.816 0.989 -0.140 -0.049
1106.615 -116.594 -37.482 -0.191 0.011 0.981
1091.622 -95.862 -42.188 -0.701 -0.705 0.106
1080.309 -117.703 -39.250 0.655 0.625 0.424
1107.384 -122.298 -23.270 -0.539 -0.178 0.823
1065.435 -116.562 -37.538 -0.187 0.005 0.982
10831.060 -88.500 54.427 -0.017 -0.193 -0.981
10845.330 -89.367 86.605 -0.684 0.006 0.729
10828.455 -89.654 80.903 0.989 -0.120 0.087
10804.615 -97.086 74.656 -0.190 0.814 0.549
10789.620 -89.180 54.921 -0.702 -0.313 0.640
10778.310 -99.171 74.562 0.656 0.704 -0.273
10805.385 -88.632 87.423 -0.538 0.577 0.614
10763.435 -97.114 74.596 -0.188 0.811 0.554
10840.060 -53.073 89.319 -0.016 -0.627 -0.779
10854.330 -38.889 118.214 -0.684 0.345 0.643
10837.455 -41.792 113.298 0.989 -0.066 0.133
10813.615 -51.276 111.221 -0.189 0.976 0.107
10798.620 -53.447 90.072 -0.701 0.020 0.713
10787.310 -53.165 112.107 0.656 0.496 -0.569
10814.385 -37.856 118.597 -0.538 0.797 0.276
10772.435 -51.328 111.181 -0.188 0.976 0.113
10849.060 -5.489 103.751 -0.016 -0.917 -0.398
10863.330 20.498 122.746 -0.684 0.604 0.409
10846.455 15.643 119.743 0.989 0.004 0.149
10822.615 6.280 122.310 -0.189 0.914 -0.359
10807.620 -5.470 104.592 -0.701 0.349 0.622
10796.310 5.019 123.972 0.656 0.174 -0.735
10823.385 21.590 122.606 -0.538 0.834 -0.125
10781.435 6.215 122.299 -0.188 0.917 -0.353
10858.060 43.351 94.420 -0.016 -0.997 0.073
10872.330 75.189 99.164 -0.684 0.725 0.081
10855.455 69.494 98.761 0.989 0.072 0.130
10831.615 62.397 105.385 -0.190 0.642 -0.743
10816.620 43.758 95.156 -0.701 0.598 0.388
10805.310 62.053 107.442 0.656 -0.187 -0.731
10832.385 76.091 98.532 -0.538 0.680 -0.499
10790.435 62.334 105.405 -0.188 0.648 -0.738
10867.060 82.262 63.462 -0.017 -0.849 0.528
10881.330 112.659 52.867 -0.684 0.680 -0.264
10864.455 107.428 55.157 0.989 0.124 0.082
10840.615 104.221 64.321 -0.189 0.224 -0.956
10825.620 82.965 63.924 -0.701 0.710 0.066
10814.310 104.873 66.303 0.656 -0.505 -0.561
10841.385 113.163 51.889 -0.538 0.371 -0.757
10799.435 104.175 64.368 -0.188 0.230 -0.955
10839.060 102.340 17.914 -0.016 -0.506 0.863
10853.330 124.320 -5.603 -0.684 0.479 -0.550
10836.455 120.755 -1.143 0.989 0.148 0.014
10812.615 122.179 8.460 -0.189 -0.247 -0.950
10797.620 103.177 17.996 -0.701 0.659 -0.272
10786.310 123.677 9.912 0.656 -0.708 -0.261
10813.385 124.312 -6.704 -0.538 -0.024 -0.843
10771.435 122.161 8.523 -0.188 -0.240 -0.952
10848.060 98.945 -31.694 -0.016 -0.047 0.999
10862.330 107.479 -62.731 -0.684 0.168 -0.710
10845.455 106.394 -57.127 0.989 0.138 -0.056
10821.615 112.118 -49.284 -0.190 -0.660 -0.727
10806.620 99.724 -32.010 -0.701 0.457 -0.547
10795.310 114.119 -48.695 0.656 -0.749 0.097
10822.385 106.960 -63.702 -0.538 -0.413 -0.735
10780.435 112.130 -49.220 -0.188 -0.655 -0.732
10857.060 72.885 -74.042 -0.017 0.423 0.906
10871.330 66.019 -105.490 -0.684 -0.181 -0.707
10854.455 67.663 -100.024 0.989 0.096 -0.113
10830.615 76.376 -95.739 -0.189 -0.922 -0.337
10815.620 73.427 -74.684 -0.701 0.151 -0.697
10804.310 78.421 -96.148 0.656 -0.618 0.434
10831.385 65.108 -106.110 -0.538 -0.707 -0.458
10789.435 76.417 -95.689 -0.188 -0.920 -0.344
10866.060 30.132 -99.431 -0.016 0.795 0.606
10880.330 9.438 -124.088 -0.684 -0.488 -0.542
10863.455 13.434 -120.011 0.989 0.032 -0.145
10839.615 23.140 -120.266 -0.189 -0.973 0.130
10824.620 30.313 -100.252 -0.701 -0.190 -0.687
10813.310 24.761 -121.578 0.656 -0.345 0.671
10840.385 8.345 -124.213 -0.538 -0.839 -0.077
10798.435 23.200 -120.240 -0.188 -0.974 0.124
10875.060 -19.524 -102.046 -0.016 0.986 0.167
10889.330 -49.305 -114.262 -0.684 -0.684 -0.253
10872.455 -43.871 -112.510 0.989 -0.039 -0.143
10848.615 -35.396 -117.245 -0.189 -0.801 0.568
10833.620 -19.744 -102.857 -0.702 -0.487 -0.520
10822.310 -34.570 -119.160 0.656 0.006 0.755
10849.385 -50.331 -113.865 -0.538 -0.779 0.322
10807.435 -35.331 -117.250 -0.188 -0.805 0.562
1142.057 -103.656 7.069 -0.017 0.284 -0.959
